# .PCD v0.7 - Point Cloud Data file format
VERSION 0.7
FIELDS x y z
SIZE 4 4 4
TYPE F F F
COUNT 1 1 1
WIDTH 400
HEIGHT 1
VIEWPOINT 0 0 0 1 0 0 0
POINTS 400
DATA ascii
-39.939377 0.0018215179 -25.33868
-40.186039 -0.14970207 -25.011099
-44.254459 3.6343956 -16.354525
-36.386341 9.9644241 -26.853998
-36.122578 10.211315 -26.75407
-39.822701 -6.9446468 -23.877729
-36.548225 10.405731 -26.938562
-39.549229 7.1455097 -22.993052
-37.250935 0.92720222 -27.046804
-37.266888 0.78252983 -27.027739
-36.940105 0.85480118 -26.899063
-44.223919 3.4916325 -16.158964
-44.231159 3.4376183 -16.198076
-40.719242 8.9097977 -22.490763
-40.63718 9.0269699 -22.539019
-41.978325 5.0056 -19.456791
-42.302753 5.2530823 -19.502897
-42.144337 5.3100586 -19.678093
-36.358093 10.652271 -26.85623
-39.67712 -6.6732883 -24.287313
-40.077686 -0.59678459 -24.535522
-39.788044 -0.13044167 -25.257154
-40.51807 9.1698036 -22.529373
-40.531155 9.117878 -22.696791
-40.306801 6.4157619 -21.788233
-40.348526 6.1571445 -21.486584
-44.185978 3.7803268 -16.159073
-39.571651 -6.6761818 -23.882774
-37.488777 1.7098846 -27.16053
-37.375881 1.1679134 -27.109472
-44.189991 3.0075073 -15.784519
-44.214775 2.951498 -15.827267
-39.665806 -0.5111618 -24.806562
-40.437679 9.2480087 -22.475052
-44.130573 2.8321915 -15.630446
-44.154472 2.8036232 -15.671817
-37.280254 0.47138023 -26.843811
-40.428036 9.2293816 -22.25069
-41.898857 5.3706341 -19.895206
-44.079895 2.9983788 -15.652362
-37.041462 0.52536201 -26.86923
-37.380558 0.65481186 -26.986303
-40.131092 9.4801598 -22.514877
-44.015636 2.8184338 -15.504574
-44.038612 2.6971283 -15.504019
-36.967655 0.67211342 -26.896719
-39.186573 -6.3224678 -23.893272
-36.944061 0.32641029 -26.739843
-43.955936 2.9759998 -15.538189
-36.752743 9.1375847 -26.585726
-37.160652 9.5633545 -26.811771
-36.77877 9.4259987 -26.853451
-44.242683 3.1764126 -15.947302
-44.245262 3.1305122 -15.982674
-36.81739 9.5550308 -26.943316
-40.480297 9.1209068 -22.96336
-39.481087 -6.7487335 -23.305532
-44.214561 3.364151 -15.939967
-44.23708 3.315197 -16.112438
-36.750771 9.7001801 -27.00252
-39.972717 6.071413 -21.585531
-40.366722 9.3206062 -22.782251
-42.782711 6.0792561 -19.009068
-42.685524 6.1308727 -19.227566
-42.783501 5.8320351 -19.082169
-39.308514 -6.5392838 -23.523218
-44.15868 3.1922112 -15.781315
-42.593224 6.0103054 -19.436361
-42.71526 5.7353382 -19.207594
-36.59404 9.4534912 -26.912781
-44.152344 3.3557701 -15.819282
-42.756767 6.2550888 -18.974518
-39.700108 6.3932056 -22.068455
-36.481716 9.5957642 -26.914494
-40.361946 9.3126411 -23.03689
-44.180389 3.5098057 -15.957843
-39.234909 -0.37298775 -25.155943
-42.619244 5.7427101 -19.387527
-40.254211 6.6201057 -22.048502
-40.384041 9.1755257 -23.175858
-36.512737 9.1296349 -26.69643
-40.521259 8.8839493 -23.066822
-36.556057 9.2724152 -26.806004
-39.556587 -2.332159 -22.339264
-40.08131 6.6622429 -22.153889
-42.482876 5.9000797 -19.646868
-42.540054 5.6589737 -19.513306
-39.281097 -2.5578289 -22.073334
-36.446468 0.96628952 -26.6861
-44.116558 3.8101215 -15.953182
-40.337444 9.0193138 -23.413309
-39.660069 -2.8605766 -21.537563
-37.014889 -0.2122879 -26.100372
-37.409412 0.17021561 -26.481462
-40.266479 9.2327957 -23.413309
-42.571358 6.4267159 -19.357517
-42.617069 6.4973221 -19.149889
-44.079666 3.5459366 -15.796166
-42.521301 6.2356815 -19.553999
-36.345146 9.1490402 -26.75815
-44.029129 3.7377319 -15.772469
-40.165676 9.5362358 -22.972157
-40.24667 9.4568901 -23.028719
-43.974712 3.1605282 -15.607494
-42.470554 6.5120525 -19.53875
-43.953823 3.2984982 -15.602349
-36.422802 9.381813 -26.871712
-40.255695 9.4042511 -23.192327
-38.998837 -2.7024269 -21.958715
-36.770775 -0.067430496 -26.338669
-39.601986 -6.3339043 -25.307148
-39.74033 -6.5184345 -25.240547
-42.383171 5.9208107 -19.833811
-42.442783 5.5718842 -19.622684
-40.090397 9.5903473 -23.277243
-36.176731 9.2886505 -26.777498
-39.448425 -6.4219627 -24.402222
-42.301792 5.695673 -19.853716
-42.310688 5.4534855 -19.682129
-39.487053 -6.2774715 -25.051966
-37.105984 0.23958778 -26.643717
-40.142391 9.4425888 -23.490063
-39.229996 -6.2516956 -24.307493
-39.71278 -6.5436764 -24.983084
-39.632187 5.9658051 -21.656799
-36.181969 9.4914093 -26.780872
-43.96019 3.6174316 -15.657887
-43.820568 4.0123215 -15.484099
-43.855827 3.5603771 -15.529206
-42.183105 5.4968567 -19.826454
-36.624317 9.8353386 -26.968702
-39.518066 -6.402998 -24.761749
-41.928051 5.5771999 -20.081627
-42.180656 5.7198658 -19.99164
-36.249577 9.7142296 -26.798122
-40.212696 9.4630928 -22.686155
-36.597122 0.03814888 -26.481272
-39.652634 -6.9815254 -23.121334
-39.924526 -7.2977562 -22.931742
-36.474861 0.14441872 -26.576269
-39.221825 -5.8876228 -25.549021
-44.19149 3.2423706 -16.247534
-44.105705 3.2458649 -16.407146
-44.199741 3.4935207 -16.463575
-39.255314 -6.0681686 -24.965759
-44.093807 3.4395123 -16.590635
-42.012318 5.7602558 -20.175486
-40.224258 7.3858528 -22.877344
-39.961124 7.2804794 -22.924227
-39.897179 9.7514343 -22.977959
-44.05434 3.0737057 -16.292782
-41.931786 5.9487305 -20.376223
-41.768383 5.8451309 -20.429543
-39.201561 -6.1036205 -24.714695
-39.996536 7.5644665 -23.200117
-41.612663 5.4033184 -20.08218
-41.367836 4.9341526 -19.667301
-43.981258 3.3961067 -16.653807
-39.309067 -6.7473698 -22.648487
-39.651489 6.8568516 -22.620716
-43.902958 3.1337051 -16.452995
-40.050758 9.5994568 -23.479774
-43.693699 3.3493843 -16.773575
-39.941338 9.7479591 -23.467861
-39.258541 6.4876556 -22.423454
-44.179382 3.0118561 -16.092983
-44.14854 2.7551575 -15.880067
-44.011078 2.7976551 -16.053923
-43.897034 2.8317757 -16.147078
-39.931377 6.7334309 -22.28966
-39.941231 9.7533875 -23.185009
-44.03883 2.6259804 -15.518308
-44.021271 2.566412 -15.642867
-43.883564 2.4801483 -15.716625
-38.949921 -5.8171768 -24.896755
-39.619419 6.584301 -22.318052
-43.936638 2.6296482 -15.901399
-39.774498 7.6031933 -23.354771
-39.935589 6.8901577 -22.483994
-41.553089 5.6852989 -20.403976
-39.078987 -6.4760513 -22.826893
-39.780788 9.9286346 -23.56768
-38.982307 -5.710043 -25.401392
-36.612629 0.37755013 -26.717741
-39.68502 9.9898338 -23.41869
-39.448734 7.4505234 -23.354483
-36.554047 0.53203583 -26.719723
-43.746288 2.6213722 -15.969248
-39.629108 9.7847672 -22.623703
-39.058655 -6.3381672 -23.417574
-39.656574 9.8851128 -22.952888
-43.571278 2.6989193 -16.112507
-39.257835 6.9484558 -22.910933
-38.528175 -5.4286499 -24.961834
-39.513454 10.080818 -23.34058
-39.724316 -6.5019341 -25.740654
-39.810944 -6.7296829 -25.669077
-39.653244 -6.357336 -25.795033
-39.692783 -6.5232029 -25.997923
-39.72023 -6.7308922 -26.104818
-39.781353 -6.8191185 -25.874805
-39.617844 -6.438694 -26.262135
-39.011806 -6.3592987 -23.092213
-39.364964 10.102932 -23.152313
-39.24474 7.4385319 -23.474165
-39.569733 -6.2184296 -25.847809
-43.419273 2.9969158 -16.530941
-36.199688 0.2154789 -26.545801
-39.430355 -6.0265236 -25.935972
-41.087814 5.7507172 -20.708475
-38.915123 6.3412666 -22.433117
-39.598122 -6.2833347 -26.074368
-39.123466 10.276234 -23.316885
-43.617897 3.1630497 -16.633657
-41.07983 8.5439911 -21.420588
-41.160496 8.442215 -21.542622
-41.247768 8.3037949 -21.493858
-41.28783 8.2981682 -21.229912
-40.872738 5.2309303 -20.237566
-39.523262 -6.1399364 -26.126757
-39.503139 -6.1402264 -26.383827
-41.027737 8.5536423 -21.151169
-41.132603 8.4635391 -21.156313
-38.920715 6.7481155 -22.873756
-41.492352 -0.29384041 -23.008673
-41.395184 -0.40251541 -23.236006
-41.441105 -0.63810921 -23.100313
-39.701931 -6.4351234 -25.517282
-39.809185 -6.6511993 -25.434284
-41.469677 -0.070699692 -22.963892
-41.411064 -0.058227539 -23.129124
-43.054493 4.3164215 -18.067751
-40.923084 8.7162094 -21.519251
-41.344765 -0.21391678 -23.333527
-43.222324 4.4319401 -18.016865
-36.677967 -0.97746468 -25.053343
-39.56398 -6.2498245 -25.587389
-37.039001 -0.55195999 -25.596325
-40.826439 8.7250748 -21.259853
-41.323307 -0.740345 -23.304485
-40.669395 8.8995018 -21.518974
-43.198624 4.0592422 -17.726725
-42.93766 4.1573296 -17.997808
-41.22448 -0.86001587 -23.388645
-41.122494 8.424984 -20.867228
-41.102192 -0.77136421 -23.594629
-40.887882 8.5047379 -20.663082
-42.641598 4.2795887 -18.285467
-38.844799 7.22789 -23.484064
-41.293495 -0.52495766 -23.440199
-41.242561 -0.29692841 -23.572464
-43.097237 4.5776711 -18.211641
-42.920513 4.583334 -18.372446
-39.405403 -6.06633 -25.604071
-41.19857 -0.54235458 -23.602722
-42.727905 4.4396648 -18.398048
-41.077293 -0.55392265 -23.773466
-39.152523 7.9565392 -24.120146
-38.522869 6.5046959 -22.808378
-36.443497 -0.44581985 -25.923756
-43.130386 2.9176712 -16.559341
-40.314796 5.3725414 -20.652035
-39.66795 -6.8174343 -26.277319
-40.320255 5.649683 -20.954651
-39.619686 -6.86689 -26.424168
-40.53574 8.7768822 -20.920725
-39.626583 -6.6073551 -26.358473
-38.810978 7.5946465 -23.895901
-40.867802 -0.78211594 -23.815498
-39.575302 -7.1249371 -26.457533
-40.319241 8.9998055 -21.223562
-40.969036 -0.54127502 -23.923607
-39.889969 5.5281639 -21.047503
-41.373581 0.15634727 -23.031549
-39.433983 -5.9866657 -26.18235
-40.043053 5.1227798 -20.509329
-41.309929 0.0090179443 -23.36165
-42.806446 3.8391094 -17.723009
-42.556282 4.0246696 -18.039095
-41.289192 0.2361927 -23.252089
-39.285809 -5.7781143 -26.318417
-39.389038 -5.9251747 -26.4599
-40.56525 8.6218147 -20.468027
-41.248005 0.19955444 -23.433659
-44.186081 4.0787563 -16.596622
-40.291458 5.0393562 -20.280262
-36.226444 -0.72581291 -25.549223
-41.171543 0.39172554 -23.493382
-44.163574 4.3331337 -16.561335
-44.137043 4.2476521 -16.722347
-41.22187 0.44381142 -23.131502
-39.260365 -5.8010712 -26.062342
-44.196293 3.913908 -16.354477
-44.230553 3.7894859 -16.456867
-35.996426 -0.66152954 -25.690516
-39.256649 -5.728281 -26.561653
-41.146191 0.52669525 -23.355871
-39.031136 -5.4671078 -26.49625
-41.068325 0.6124115 -23.569002
-42.186665 3.9699936 -18.176756
-44.121143 4.1570568 -16.138004
-39.035065 -5.544735 -26.146906
-39.744587 5.3027134 -20.853262
-38.495731 7.1401558 -23.577698
-36.535297 -1.3749199 -24.512941
-41.10487 0.65791893 -23.206133
-44.153633 4.2813797 -16.360867
-41.018036 0.79654121 -23.25495
-40.996922 0.78724098 -23.536381
-44.081055 4.533411 -16.129955
-40.879135 0.9698391 -23.700027
-38.37114 7.4748764 -24.022295
-40.978401 8.2995758 -20.238609
-40.943176 0.89947319 -23.423109
-42.029648 4.2527828 -18.585247
-38.471039 7.3974571 -23.858568
-40.821278 1.0481606 -23.48189
-38.819603 -5.3942871 -25.969017
-40.297901 5.848917 -21.157711
-40.486507 8.480751 -19.995373
-40.670502 0.47354698 -24.812044
-44.012463 4.9870625 -16.138336
-44.038692 4.8301544 -16.085361
-40.258228 8.7394791 -20.368652
-40.675858 0.21544647 -24.752188
-43.941708 5.1333847 -16.188234
-39.997555 5.7762718 -21.240191
-40.547234 0.4281311 -25.058256
-40.574497 0.21302223 -24.920782
-44.110004 4.5245152 -16.604139
-41.125027 -0.18941879 -23.807575
-40.954987 -0.02252388 -24.170725
-44.066582 4.3931007 -16.775185
-41.126125 0.11955452 -23.787216
-40.972866 0.25992775 -24.141525
-42.60918 4.6740913 -18.719786
-44.023079 4.6918564 -16.713221
-38.062843 7.2155781 -23.900537
-43.993523 4.538063 -16.825663
-42.403271 4.5601063 -18.731596
-44.033195 4.8372688 -16.596815
-43.94627 4.6878071 -16.899563
-41.216202 0.084537506 -23.581137
-43.965626 4.9857082 -16.645229
-43.899288 4.98592 -16.834442
-38.785988 6.8837147 -23.128231
-43.902382 4.8578625 -16.996931
-44.115051 4.5575333 -16.374315
-44.08952 4.7531834 -16.308361
-44.080246 4.6922646 -16.509068
-41.006092 -0.30757904 -24.000097
-39.914814 9.2185211 -21.272284
-41.796696 4.4221935 -18.876976
-42.176506 4.7404366 -19.053162
-44.046009 4.9274673 -16.357113
-40.017891 8.7365379 -20.054102
-41.09697 0.35224342 -23.78434
-38.713772 -5.467926 -25.45429
-38.407116 6.8441849 -23.292345
-43.971611 5.0714455 -16.408484
-39.483322 5.5971832 -21.31908
-35.724819 -0.98189926 -25.273088
-41.388428 4.5109062 -19.184694
-39.039768 5.6637878 -21.573671
-43.996532 4.2060642 -15.768723
-41.079426 8.5432243 -21.707388
-40.841042 -0.34601593 -24.217329
-43.893932 4.2983952 -15.601126
-40.968159 8.6849556 -21.766613
-40.815273 -0.029577255 -24.430616
-39.141163 5.4759655 -21.33054
-40.814533 8.8345299 -21.633617
-40.866245 8.7996254 -21.807854
-40.719429 -0.25740623 -24.424545
-43.67942 4.6502419 -15.373437
-35.607677 -0.81840706 -25.517794
-44.04887 4.3302212 -15.927776
-38.701885 -5.1784382 -26.389214
-40.48341 -0.27035904 -24.645708
-38.127804 6.659132 -23.185211
-40.692924 8.9327431 -21.744717
-40.835224 -0.5774765 -24.05431
-40.777119 8.8940315 -21.979902
-36.465878 -0.30204964 -26.107882
-40.435513 9.1699753 -21.988264
-40.599228 9.0692139 -22.07814
-36.234726 -0.32609749 -26.096237
-40.343456 9.1792221 -21.815527
-40.701019 -0.53577423 -24.218084
-37.826393 6.8380833 -23.545769
-42.284756 3.6202526 -17.700308
-40.505161 -0.48696709 -24.411076
-40.668655 -0.71195984 -24.063318
-39.599285 5.0778008 -20.666237
-36.127659 -0.13733673 -26.301144
-42.083073 3.6990948 -17.905968
-40.328659 -0.54135704 -24.466614
-38.212265 7.1151123 -23.691824
-39.829914 4.551302 -19.911089
-39.129475 -5.5513649 -26.728073
